-14.504326 6.639967 8.9276939
-13.56102 6.3607826 4.8280989
-10.642877 7.9235078 11.770177
-11.136907 7.8892886 12.024089
-9.6264413 5.9839843 6.2562177
-9.7423097 5.9060716 5.7371172
-11.976166 7.9516115 13.797093
-10.814619 7.9237501 11.757553
-11.267843 5.9817138 3.0789208
-14.227769 8.2125242 15.685236
-11.988414 8.0951271 14.544264
-13.578296 6.4738105 6.5338011
-10.221134 7.7259841 12.397412
-11.38891 6.5172027 1.3497438
-9.7485238 6.0854222 2.4590506
-11.698558 6.0229436 7.5903889
-5.0275448 0.45984989 5.6876256
-16.852534 7.310617 14.762736
-16.036812 6.7128717 16.146733
-14.219671 9.0769487 8.9861625
-12.258507 6.7218082 10.281193
-9.3005039 5.9273382 5.6321892
-9.7574264 6.0576256 7.241983
-14.351729 6.5505441 8.1192271
-8.9541127 5.9574721 5.8087999
-9.1626784 5.9364475 6.1245398
-16.062395 8.1862767 13.890252
-12.54418 6.1208661 1.198697
-13.827787 8.7143937 14.95453
-15.352035 8.3217896 15.366149
-15.55314 7.3711887 8.1656647
-11.117559 6.0584925 3.0345148
-13.117397 6.4026591 8.3577658
-9.0471776 5.947145 5.9154787
-14.420928 8.3252949 13.139287
-10.823392 7.9905912 13.538286
-10.359912 5.9016836 2.8109743
-12.143927 6.212957 4.5401131
-15.867712 13.547235 -0.37658349
-11.350667 8.082468 14.267336
-14.49423 6.4798776 7.9413972
-9.0093151 6.0295793 9.5474593
-14.057121 6.2123145 5.6016429
-16.161349 8.0360172 16.295411
-9.0292701 5.8268498 3.3619988
-10.468567 5.4578675 9.5685514
-10.894904 6.0140093 2.883593
-9.7248695 5.6666371 5.8576297
-15.749527 8.2031178 12.635299
-14.489939 6.2124219 5.5436032
-13.085084 7.9593693 15.379212
-11.411752 7.0696277 10.639146
-13.86208 6.5398001 8.7426279
-13.661388 8.225739 15.881302
-12.176839 6.0766287 1.1802085
-9.5030055 5.6368788 7.9318255
-8.5244703 5.0245112 9.392423
-14.744296 8.3096001 16.077918
-11.800331 7.8247568 12.225804
-12.086799 7.9042229 13.594979
-12.178411 6.3587375 5.8459912
-11.661103 6.0087242 1.1792743
-11.639932 7.9975925 14.1362
-14.388282 6.4086199 4.9850974
-10.26274 5.9905279 2.9987299
-12.477437 6.003434 3.0451661
-9.2713754 5.9870902 6.3825655
-11.800378 6.0453233 3.9660069
-13.733948 6.150398 5.5436268
-12.691116 5.8952808 1.2019338
-9.3520889 6.0015836 6.3355703
-9.4781061 5.9474009 5.7106409
-15.944264 8.0001352 16.433099
-12.226575 9.8468485 9.2874519
-13.684562 8.3939532 15.934883
-14.242291 7.9793733 14.280246
-12.980495 5.4976345 1.073327
-11.625867 6.3397368 3.4182654
-10.523311 3.3305742 6.6418319
-16.222994 7.6904306 13.68509
-16.084945 8.2068993 13.915688
-14.744578 6.5281669 7.9491137
-11.668467 6.24645 2.7936609
-16.082794 8.4450276 16.758999
-8.9776869 5.8783376 3.4557677
-11.249594 6.2478032 8.6913577
-13.748491 6.1392788 1.131273
-9.9613643 5.9763691 5.9708099
-9.7652994 6.1810722 2.8147244
-14.857915 8.5033935 16.524231
-12.413675 7.9964137 13.12784
-12.1389 8.117552 14.551592
-12.265255 6.0570288 4.8241446
-12.570553 6.2960404 3.046688
-9.2167488 6.1150153 1.7532425
-10.985241 7.4023457 10.923423
-8.7812221 5.1513406 6.5043929
2.7509376 2.9361745 7.3842404e-002
-25.410384 -16.656554 1.6831542
-17.745204 -8.6368027 19.363792
-0.34407489 0.61234025 0.76280884
-17.879796 -8.8859486 19.492152
-1.4612397 2.5843566 0.96983973
1.0776934 0.92687805 0.59794953
-29.137856 -13.288793 27.921269
-31.430468 -16.685771 4.8425459
1.1221986 -0.54661293 0.11932875
-33.242888 -17.085637 5.885557
-24.524319 -17.099697 1.288092
0.83161642 4.0917136 0.89975359
1.4030642 3.3780144 0.35219868
-15.99371 -5.5726077 3.7356536
-17.375575 -7.4732097 18.42563
-7.7699542 0.76250607 1.144087
6.17862 4.3106776 4.3837233e-002
1.7893953 4.8534249 3.4688226
6.4578685 4.326323 -4.8477909e-002
1.0991598 0.91018196 0.4550908
-19.606727 -13.448797 20.679559
1.0919972 0.92523452 0.8525706
-16.213047 -5.2046358 2.7271975
-16.990529 -7.4088882 15.675343
5.689778 6.9534496 1.2183325
-16.832903 -1.7063421 9.527273
-13.989849 -1.4366395 4.1940605
-17.216209 0.40780597 19.114597
-18.129947 -7.3291708 20.337161
-16.589938 -1.1336985 8.1454829
5.520404 6.128053 1.3832076e-002
-16.917489 -2.8531863 15.261419
-17.373773 -0.70420037 12.715746
6.7891058 6.0916885 -5.4867036e-002
-18.058364 -11.313675 17.296933
-17.900802 -8.9417957 16.600548
-3.1296436 -0.24455995 0.96146406
-17.70862 -5.6915922 16.108237
-14.798168 -1.1587114 2.4124195
-16.876798 -1.3569368 13.265589
5.5134532 5.9144671 0.41084318
-17.181815 -5.9408514 18.034976
5.538578 5.9581631 0.15007921
1.453847 3.9980962 0.22389419
-8.0995159 0.60128507 1.0255132
-18.102103 -0.66510167 12.825081
-17.013696 -4.6110085 8.4064416
-16.396678 -7.9702563e-002 9.7733722
-18.525103 -9.0762715 1.0628922
-19.434648 -0.89848232 18.375546
1.0793322 -1.2649313e-002 0.94440993
-17.179879 -7.184774 0.92516581
-32.460562 -16.611677 8.0166951
-32.939111 -16.527743 7.0274773
5.4398987 5.9669976 4.1630422
-17.763817 -10.950179 18.988845
-18.031235 -11.282904 16.709931
-24.660299 -17.216218 1.255192
-34.163603 -18.811885 29.816553
1.3193996 2.8721272 0.91463214
-16.678091 -1.9873291 8.1310208
-17.7164 -10.612089 17.501957
2.3833451 5.0080735 9.2941301
-15.881514 -0.49012804 3.6341532
7.948985 3.6183022 2.7606041e-002
-30.195766 -14.09928 28.266045
-33.615502 -17.015074 6.1258745
-3.5751923 2.8318689 1.033914
-16.574925 -0.73163004 8.4874314
-28.503645 8.3913211e-002 25.983984
0.39187074 0.1423401 0.96474673
-31.656886 -17.937355 7.6063178
4.1662259 2.6482402 7.0290547e-002
-17.018783 3.5077021 0.95542463
5.5814112 5.9634306 3.0485325
5.4354208 5.9251998 1.334499
-26.638775 -1.6720197 25.4945
-25.008315 0.9912796 24.365298
4.2115244 3.0973823 0.10199544
-27.263852 -4.2454442 25.294289
1.2154456 1.9404908 0.4688824
5.522997 1.2307065 1.8280556e-002
-16.523642 -1.137256 7.6481777
-25.950716 -10.15926 24.113791
5.5582031 5.9438887 0.51435169
-13.934907 -0.28601373 0.17918291
1.0991696 -2.4397062 10.180634
-17.034427 -2.7456503 9.7542832
5.4291346 5.9286286 1.2611831
5.9382744 1.7451408 8.6198324e-002
-6.924723 3.0825674 17.201557
2.5681429 -1.7810693 3.1795266
1.7164131 -2.3087441 12.671245
-16.749917 -2.2444663 11.529197
-15.932771 0.52008052 18.359394
-27.72851 -9.2154564 30.051509
-15.108058 1.218343 17.475584
1.8620753 -2.2876301 12.607385
-16.061643 -2.2762595e-002 8.3200583
-15.160322 -5.5518244 0.70138065
1.3301885 2.6705281 0.84147873
-28.274032 -13.056486 29.844894
6.0007554 4.3528946 -2.3335052e-002
-27.078455 0.18732507 25.373623
-15.394906 0.83273636 2.8710181
-15.012968 0.57742945 5.4763136
-16.573934 -0.60071598 8.8745464
-2.1759539 3.4749969 8.6472314
-14.869044 -0.52940667 16.649089
-15.176622 -0.51230021 5.8041645
4.1256155 0.51448627 -0.16942527
-15.234919 -4.5504545 3.2627005
9.8962747 4.845285 7.867382
-15.671275 0.65330727 18.663681
-17.813306 -10.897943 18.812122
5.1209988 0.94802909 1.6484644
-15.380047 -0.19033385 5.9301562
-32.867258 -10.480304 31.103752
-14.705937 -0.680692 2.142409
1.5598331 -2.4078961 12.168584
6.0190449 3.6421006 9.0346967e-003
8.4198133 5.8849899 2.6013995
-29.805226 -17.034222 29.870843
7.3854662 3.8584912 3.4853651
1.4118974 3.6764368 0.899609
1.8057778 -2.2812901 12.671576
-8.439268 1.9883572 10.264192
-17.238571 -10.106321 19.1531
-0.55516125 2.2158186 0.93233807
1.1950384 2.7261512 0.53894608
-32.052888 -15.623089 32.110202
-15.512113 -0.94936563 5.429936
-17.017639 -5.7937989 17.550934
11.709877 5.4486542 3.6824684
-14.889574 -0.85049318 0.88149605
1.8846845 -2.7339802 3.5493948
-34.481992 -30.779853 27.985194
0.24036682 -2.118684 2.1587292
-18.511745 -23.186648 43.706971
-22.197222 -1.3569314 39.166394
-24.829896 -7.7905556 44.878385
2.4069018 -3.6564105 4.8993835
-7.5347346 -4.8249576 15.670822
-17.887078 -5.0938217 44.782756
-34.582279 -30.595463 28.78292
-12.212576 -18.365493 44.269872
-27.573648 -30.237457 45.044323
-16.071262 -4.5579508 4.1357887
-34.087396 -33.905483 38.293836
1.0956977 -2.3433185 19.981872
-24.408772 -6.0478683 42.5463
2.155487 -2.9813938 3.7624713
-26.391375 -2.7531704 42.838828
2.6332579 -3.2044581 15.011447
2.4845322 -3.8118049 3.8067169
1.4748288 -5.7590919 1.2593332
-31.766424 -31.211624 32.479332
-29.698953 -12.89591 27.712457
2.3685099 -3.2725485 3.2349813
-33.225895 -9.3120881 29.993497
2.3725132 -3.2946386 3.9483637
-32.55702 -29.198406 35.865381
1.7333628 -5.7865319 2.5580866
-31.249795 -10.576511 29.798435
2.1462815 -2.9031792 3.2247794
-16.967381 -19.346114 44.947869
1.6474402 -2.3611193 11.938203
2.6247389 -3.4989317 12.747392
-32.899335 -13.07851 45.409553
2.2767928 -3.9631101 1.900054
-32.277565 -28.211443 32.877384
-30.829818 -25.557981 31.587746
-17.781025 -7.0343343 7.796999
2.4985711 -3.1464191 8.1736377
-30.381704 -9.6460101 35.87161
-22.701412 -6.4176572 31.672081
2.4527698 -3.5407243 5.9332505
2.0336344 -2.4173835 12.382036
1.8093558 -2.3318101 14.504742
-19.028587 -22.739821 22.604704
2.1339056 -3.1445392 3.4116232
2.5320804 -3.6287675 10.068863
1.8263886 -2.4904492 6.6039632
2.5699402 -3.0890356 12.793822
1.2620142 -2.2864914 19.593114
14.769439 2.8236322 6.1340615
-28.430762 -11.982622 44.790719
-11.397048 -4.2312357 36.527228
2.2270952 -2.493751 14.760617
-31.586612 -28.882057 26.311701
-31.284685 -10.722655 46.436912
2.1824627 -2.8704148 4.3709973
-19.319627 -21.096953 13.87931
1.8607853 -2.5159469 7.7939513
11.929621 3.0439871 9.4298222
-31.272318 -27.434658 31.277848
-15.582785 -2.2298703 1.4903672
-36.834468 -35.359889 36.816122
-16.892988 -1.0337983 14.001339
-15.544304 -0.8405603 5.4174799
-16.670085 0.3948912 18.629227
-15.305786 2.1305885 2.0133154
-16.258219 5.8387648 17.514633
-14.885669 4.7419651 1.2219596
-16.756476 0.59487223 13.046436
-16.861485 -2.9633018 8.4275591
-16.199107 5.0859809 17.54014
-16.413677 3.7117039 17.523113
2.4742172 -3.3420879 7.5728473
2.3734833 -3.937199 9.8777129
-15.09957 -0.56752421 19.69541
-16.716409 -5.2737874 6.0324462
-6.1810066 7.1096788 19.493855
-29.869641 -2.2898337 45.035423
2.6162215 -3.8695437 15.003666
1.7427017 -4.5321098 5.1875951
-14.388285 -2.3720581 4.143161
-10.893257 5.7765951 1.3570246
-13.08884 7.9199592 13.663797
-7.8474632 5.5167857 3.9733068
-24.600451 2.8585837 41.376947
-14.491042 -0.85620615 5.378384
-30.876572 4.857968 53.073299
-16.717854 -1.8004465 3.9502374
-27.835998 2.192667 43.793993
-26.123431 1.3272953 41.121228
-8.484598 5.8901212 9.9515832
11.827012 -7.8718761 5.6376419
2.3616623 -3.1349435 4.5845077
-19.609342 -4.7767119 7.9859475
-9.7811512 7.3683949 12.130576
1.7122269 -4.4750249 9.6838362
-19.199153 -4.2354341 6.8754206
1.9076204 -4.4449606 11.368521
-22.555281 1.5159155 43.181088
-9.2832562 6.0598765 6.3960686
2.3201739 -4.0139264 6.8624419
-29.292683 -0.65889701 44.327492
-15.87015 -4.698976 3.2672077
2.6091903 -3.7536261 14.590388
-7.0698988 7.1718789 11.678009
2.1633162 -4.2302842 5.0403031
1.7131723 -4.4595739 11.487451
-7.6035944 5.6460477 6.2452174
0.20634059 -6.1750894 2.2162371
2.2247899 -4.2268784 10.134176
-5.2381329 5.3731649 5.0071088
-16.650796 0.46955494 13.377623
2.0809392 -4.3222063 5.1577081
-26.603248 1.4593011e-002 26.061522
-13.565881 7.7571025 12.405951
-15.454462 0.22681857 16.382243
2.6800907 -3.4540744 14.387209
-16.651511 -0.10850575 8.7002537
-25.134055 0.55403563 45.650815
-8.8835979 5.620594 2.4282222
2.4638807 -3.9655697 14.340141
-32.779068 -7.2769733 45.561946
-12.991995 7.6873269 13.531966
-11.199772 13.393797 33.954829
2.2600556 -4.1178821 6.0967649
1.5875151 -4.6150892 3.7643186
-7.4820892 7.3286715 14.548809
-16.369133 0.51961885 18.349176
-22.996275 3.0101682 39.597504
-26.744966 -3.1812606 43.063409
-5.3393247 7.2126658 17.038287
-16.263856 -4.8353051 8.9519292
-4.095067 7.318364 16.477492
-17.869382 -7.6021384 18.959558
-34.319806 -5.081041 46.975605
-17.026793 -4.0539667 8.4084103
2.5907952 -3.2093685 13.0464
-10.892386 5.9535876 1.2164812
-16.314122 -4.3063152 8.9853391
-16.740825 -2.1044746e-002 8.4817389
-5.1231153 7.2080118 18.940192
1.7857015 -2.7265293 1.9239276
-2.9040829 6.4909956 19.187891
-25.487769 1.8796332 43.074137
-11.570436 7.5455932 12.814726
1.8979372 -4.4682261 2.4273413
-19.522314 -0.1082543 24.139572
2.2678281 -4.1116905 5.7729032
2.4643642 -3.1443461 7.9742859
-31.187094 -7.3551189 37.930735
-10.605215 -3.6319554 10.164003
-6.8338867 7.1119472 11.362711
2.4760068 -3.8846666 12.775593
-17.73006 -7.2300723 20.190994
-29.152324 0.44304136 43.69925
2.4944446 -3.9590197 15.054979
-16.796503 -1.7283978 8.7959656
-16.959269 -2.1086148 9.5846871
2.4357903 -3.2306268 5.2790621
-9.1698515 7.5125571 16.667428
1.9730918 -4.3179055 14.75173
-27.322545 -2.3357882 44.733012
-16.666098 -4.9777653 3.6700576
2.5234411 -3.8668186 14.311507
-16.483061 -9.8301005e-002 8.0676591
2.0060385 -4.3789947 8.787259
1.8083741 -4.4776752 8.7106803
-22.243807 -4.2952645e-002 43.481597
2.2595826 -4.2311201 8.632219
-9.4349545 7.5003037 18.725773
-16.502434 -5.8059814 0.5440509
-16.435039 -0.35493502 8.2551493
-18.97084 -2.3393043 23.516828
-16.628117 -0.10853654 9.0806555
-7.6469468 7.4378579 15.779067
-16.749368 -1.8419004 15.029419
-16.970609 -2.147475 9.6760455
-6.4008421 7.3162051 18.668313
-16.811672 -4.0103538 7.5162194
-15.194886 -0.18104042 2.5120712
-32.084379 21.296533 35.974377
2.2689899 -4.119309 6.0349169
-29.348564 -41.181557 43.426576
-22.234731 -29.230218 2.1097447
1.4621422 -5.5183648 2.3551328
-30.034576 -45.129633 41.928425
2.2542271 -3.6105636 1.9932092
1.8991246 -2.542245 7.03368
7.5933769 2.9194704 15.316281
-22.574992 -35.691363 16.939702
-20.792319 -29.536796 7.8134481
-30.444703 -44.258793 51.896765
3.8562876 1.1835072 19.025675
-28.361945 -12.615279 27.563746
5.6329854 -0.55370489 2.5718964
-19.877445 -23.178659 10.447569
-0.1151696 -12.366251 20.673074
-3.7667091 -13.117788 0.68911799
1.9668407 -2.6426871 4.4815901
2.1949927 -2.8133035 4.5041298
-33.492175 -42.602365 44.956546
2.2799683 -2.4464643 24.120917
1.8576869 -2.5553953 4.464082
-20.63167 -26.837363 4.0202148
3.4987028 1.7151061 11.943679
2.4441543 -3.4779707 5.2365767
-13.358991 -22.506076 1.4286501
-18.504427 -28.934471 8.2225764
-20.933717 -28.42783 0.94799709
2.0145586 -2.6352914 3.5080612
1.2574579 -2.3499144 19.916312
2.4257106 -3.1151917 5.0380304
2.4162374 -3.6344045 5.2019056
-23.21537 -33.428447 1.7762817
2.1008678 -2.6790418 4.488196
-28.125477 -11.784772 41.673407
-20.017763 -26.524882 11.009439
2.0725152 -2.5945538 9.3693328
15.070518 4.7219488 5.0637906
-33.66184 -18.162385 33.670491
-31.492043 -33.383416 11.661331
-33.07909 -36.662631 46.359466
2.4239567 -3.2802598 5.8114761
-21.367404 -30.361927 23.934507
2.9788986 -4.2039858e-002 19.510838
-17.341836 -9.092783 15.938774
-20.008685 -26.32021 28.503792
-21.979563 -32.153025 16.981099
2.8462677 -3.8421193 21.142007
2.4841575 -3.0398479 10.523303
10.788304 3.7034721 11.68933
2.4363599 -3.3453193 5.9954546
2.4802837 -3.6401776 5.1072201
-24.300719 -39.462576 47.21217
0.50572827 -2.652896 5.0976631
2.3134512 -3.8287701 4.2915857
-15.263019 -8.1968875 31.572555
9.0633655 3.4991467 4.7921277
12.638428 4.5176888 7.112853
1.7988831 -2.6370814 23.993379
1.4308777 -2.3217566 13.046528
-4.1989521 -13.635053 2.1737498
2.0452818 -2.7465111 3.4855648
-25.987392 -28.370243 17.360839
-32.464385 -35.575167 35.207933
5.6313206 -0.53998409 1.7352475
-18.926526 8.7962528 21.79789
0.68691103 -2.69194 4.4666632
7.0711963 3.6691331 1.0561724
6.7469061 0.4957487 1.7245406
-17.553157 -7.7953932 16.376437
6.6648528 0.30690393 2.1152836
0.46471852 3.2759813 0.91737023
-15.236077 5.0607552 1.9640218
-17.670664 2.9298444 16.564387
-16.891304 -7.7239466 7.6265296
8.2291571 3.6716463 1.5001477
10.160108 2.2385964 1.8060041
0.92496909 0.41345192 0.81583824
7.7369096 2.7065339 -5.7593195e-002
-19.096346 3.0710622 20.275698
-6.2852711 -0.53466669 1.6420399
-16.514225 1.1773772 13.158343
-15.655067 4.7090977 6.3077001
-9.7952387 5.0471299 1.1050969
1.8384994 -0.13466324 12.396035
-3.5636295e-003 0.27834465 0.96546219
6.5819734 0.12634886 1.9255014
-20.009916 3.5004719 20.987817
1.1482972 0.69128418 0.58059736
7.2799458 0.34583082 0.68848569
1.123634 0.8600228 0.72242934
7.1768949 0.31849986 0.70990864
7.4860206 0.53405367 -1.296058e-002
-16.58533 -0.7756671 7.2695759
6.465787 0.73071894 3.4339066
-3.2984082 7.2252151 11.925055
-20.043529 6.9473205 23.955101
-11.7556 3.5238097 1.1725676
-9.4115525 4.736451 1.0768149
0.23519684 3.1023229 0.92647582
0.36663584 4.0217982 0.87077144
-17.825248 2.6944109 13.486833
5.0394433 1.3415658 1.1511243
7.7347398 2.3876502 -2.9322716e-002
-3.5079431 4.5027842 0.98153247
1.3416743 2.8692067 0.54386555
-14.940825 5.2641328 1.2399137
-15.610255 0.37733918 8.1282433
-8.921328 4.9815855 1.0390457
6.030566 0.11008044 2.7261489
-17.818006 -2.0908081 8.4862811
1.7011906 -2.3095637 10.723505
-15.323315 2.1677913 1.1984016
-19.922258 5.9741604 20.330592
-25.844443 3.5196132 23.800373
-9.0162942 5.0188351 1.1069885
-18.239449 5.4686074 13.270961
-19.263636 4.917572 17.708938
-18.08221 1.9677681 15.204054
-6.2626741 -3.0902083 15.17443
1.6599757 -2.5016104 3.3628054
-15.138422 3.8031055 1.2779571
3.1741723 6.1763669 -2.5349241
-17.322068 -6.8970008 17.451198
-1.7597221 2.2180895 0.99265364
-16.524972 4.6859162 9.534389
6.9096293 0.23607331 0.40114653
-16.718233 0.88441907 18.143728
5.7398077 -9.9067495e-002 2.8482524
0.36433602 2.4762529 0.94794488
-15.745817 4.5983671 6.3660984
-18.778686 4.5512289 14.111562
-18.596273 5.7785537 14.663102
-4.6964072 0.98894264 1.5007172
-14.777966 4.7011427 1.2322164
-17.151591 -7.6503041 18.779767
2.2758594 6.2814035 3.4961826
1.6313607 3.9332838 9.2178252e-002
1.6278259 -2.4067332 7.9839428
6.1174929 1.8984308e-002 2.4030875
-12.618955 4.5257599 1.1772756
-15.226142 3.1040428 1.4062346
-17.076615 -6.4286268 18.676911
1.0923698 6.515436 6.1545755
-8.3307244 7.8309337 17.899213
1.1596659 0.74923974 0.32454755
1.9480605 -2.4287972 11.603357
-17.604454 -7.644282 18.297972
-16.747592 -0.92112612 8.5042121
1.3451344 6.4988697 3.7328348
-16.547468 -4.6854684 8.5805511
-15.361073 3.8846144 1.304872
0.7934007 -2.6025898 5.2452285
-9.8160013 1.8739046 1.0156057
6.6747422 0.5261048 2.6809649
-15.490089 1.2675677 2.5613977
-17.55424 -7.6081166 19.375624
-15.446378 4.5580017 1.3828767
-16.9151 -1.7123731 11.713775
-9.9388742 2.1020956 0.82618223
-18.280497 4.1797919 13.026813
6.3358954 0.41840924 2.9393785
-16.956266 -7.4505668 18.350807
-7.8793687 2.4327455 1.0920425
5.8579886 0.78852421 8.8833917e-002
1.3305639 4.8635977 5.6430062
1.6911522 -2.3545779 11.869205
-18.134646 -1.7244614 23.134708
13.393088 3.8060926 4.4325382
-17.521539 -8.297645 16.174326
5.0406819 2.1102752 1.1337861
-17.516774 -6.7226351 7.9693841
6.9945721 0.35689249 1.9173288
-17.072867 -7.9721311 16.634493
-17.510283 -0.24433507 8.3271072
-36.230342 -15.593953 12.479029
1.8049976 -2.438409 8.5688933
-17.482032 -7.5597599 16.822023
-17.184665 4.1226762 13.84117
-26.952674 -9.7932627 1.1410559
1.469386 4.3990952 0.90018019
-16.854455 -3.7185995 8.2751007
-20.43698 5.4619136 22.372956
-17.419559 -8.3536992 18.96336
-17.233515 7.2382591 18.032346
-15.40882 0.92538117 2.414719
-15.79611 -4.1160311 7.1103662
-16.598399 -8.1091773 19.403734
4.6467658 1.5233915 -0.42022683
-30.463367 -9.7645373 26.715954
1.9077016 -2.5112657 8.3705348
-15.913052 -0.66807714 4.604518
-11.769515 -6.5596859 17.362831
1.8691592 -2.6146127 4.4722282
-17.365227 -7.9385619 17.191659
7.7891596 1.0368741 0.13839279
-17.195733 -7.5262492 18.546811
7.7727702 4.1780741 -5.1463192e-002
-32.335395 8.573357 28.250534
-16.647879 1.405326 16.817308
2.0527421 -2.7295254 4.600674
-16.997147 -0.2840015 13.542126
-16.342739 3.1754394 18.562316
-31.367877 -9.8842952 28.027946
-17.821826 -7.0951832 7.5824587
-17.365626 -8.1580009 16.472794
-51.755668 -3.2743643 37.216051
3.5404404 -0.77109185 1.5916575
6.0385918 0.61381276 3.9300758
-16.826919 0.59552586 18.97148
7.0390455 0.39741724 1.2141223
-0.76253688 4.2406894 0.94259259
-15.417795 -1.7598461e-003 2.6248589
-16.74204 -0.11743345 15.202652
-2.2093878 5.9218442 -1.1838676
6.0287412 0.64231034 3.9725174
1.8245427 -2.3450921 11.787843
-17.45994 -7.9399553 19.218641
-17.54906 -8.2903893 16.275931
-16.370347 8.0074379 19.271428
-11.994474 -2.4883704 -3.4471415
-17.138067 -2.9067469 15.335312
-17.318981 -5.9638951 18.55373
1.8709657 -2.5764928 5.9221317
-13.707013 -3.9808712 5.2949386
5.464101 0.82296675 2.3035045
-15.883438 -5.4800996 4.9802764
2.0617731 -2.5205158 10.221427
-16.206257 1.3278184 13.213447
-2.3129984 3.4041687 8.6281956
-15.321974 4.2815466 6.564849
7.1527559 1.3148361 -0.21222576
2.0646932 -2.4749048 11.569888
5.7061985 -0.1558274 2.9291824
-17.426287 1.4662519 15.927682
1.0435365 -6.0242599e-002 0.90128185
-17.766345 -6.8371338 19.302257
5.7691048 1.9066338 1.9981241e-002
-17.51788 -8.6298749 16.015019
-17.510299 -8.8157219 19.556361
1.1833561 0.97516097 0.81327817
2.1057283 -2.5664812 10.402992
-17.044793 -1.8027088 15.758514
-17.07898 -4.6345605 9.0562862
-29.467019 -9.6012258 26.850048
2.2747294 2.8569141 8.8175864e-002
-15.669254 -2.6068593 2.8124158
-17.005758 -2.6610243 9.1283241
-16.756944 -3.4205268 7.6366679
-16.927281 -3.5728912 7.7826583
-15.360834 0.70207672 3.864114
-14.681485 2.6589004 8.7356762
-15.111212 4.0889866 2.07175
-15.217369 4.1026453 8.6252382
-14.775611 4.875247 2.0220356
-14.84375 -2.4436901 5.9515796
-17.281319 -3.841862 9.7876951
1.4498347 3.5953562 0.80040931
-36.981393 -10.362833 29.582186
-16.799683 2.630434 17.569801
-16.451764 5.482298 17.855778
-17.432797 -7.3934479 19.962526
1.9322872 -2.6607098 3.2090454
1.1313872 0.53815483 0.66097048
-16.263824 5.3755266 16.943694
-16.697915 1.3061909 16.390802
7.4274466 0.10736952 1.7546969e-002
-9.4869359 6.3740137 17.102154
1.9113801 -2.4400891 10.727518
2.2148669 -2.6855043 10.08854
-16.4129 4.9707531 17.76946
-16.580623 -7.8865449e-002 8.5607181
-16.950782 -2.7975189 17.520875
-15.261127 4.0809588 2.8664019
-16.710266 3.6245446 18.467122
-16.652954 3.0528809 12.817667
-16.27256 7.1983358 16.922478
-15.246669 1.460321 11.824626
-16.522962 2.7595005 16.243211
-5.4120705 2.183518 8.9975229
-8.6599758 1.3785684 9.991971
-15.218793 1.7371374 5.6043996
-2.0047805e-002 2.0819878 8.1526646
-17.309556 3.5862381 14.945312
-16.83917 -1.3823699 8.1144731
1.398635 3.2461355 0.45109545
0.24719521 5.9753368 10.487562
8.730428 2.8983241 7.8676155
-17.676114 -6.294098 18.743376
-15.959119 -1.647013 17.594939
7.0111475 2.901537 2.0124438
-16.982521 -1.3070996 9.7999799
-16.548715 2.9905474 14.498881
4.8810568 -0.64508626 4.7091826
1.3031581 2.1900394 0.85694254
3.5414469 1.3178937 -1.0669756
14.339968 6.2907968 4.4979411
5.9874359 6.085641 8.9901094
1.8026931 4.7073267 7.584856
1.4939481 4.6770969 4.1712908
5.8254356 2.5549828 -2.477474e-002
-0.17187919 -3.1171966 5.2735667
-15.624657 -3.8359705 6.9333967
-15.448709 1.0495253 15.925573
-15.760336 0.2840298 7.2045671
7.5854175 2.8341416 -0.12339351
0.5866951 -2.6919438 0.40954918
3.5085768 3.265888 -0.17050618
7.6138528 2.9795238 -0.1147153
-1.7939159 -3.0627825 2.6583497
-15.549785 0.30385204 3.0224763
7.8020387 3.358968 -3.4992802e-002
7.271148 3.2405248 -0.33902532
0.84068789 2.4788659 0.94661435
4.496539 0.27786274 -0.4532119
-2.7293028 3.6677691 1.0468624
5.5360112 2.3109928 -0.10011062
0.31313259 -2.8341769 5.430138
-16.499878 -0.60224074 0.67532104
-18.769069 -6.3485105 4.1092325
-16.356062 1.3507581 15.700262
-15.156041 -1.5456228 6.541294
1.2084108 1.8521608 0.7426606
-13.712173 -0.2453969 21.73689
-14.999477 -0.28671931 1.8203493
5.6884796 2.3170439 -3.2485703e-002
-12.944778 2.1677246 20.625321
-2.5154477 -3.6818719 1.6139188
6.0604737 5.179043 -5.0390072e-002
-1.2088908 3.3203756 0.96053514
1.4672977 -2.5556175 5.0571332
-16.831281 -2.8274787 15.480269
6.6565728 2.3354768 -0.62979042
-8.6149454 1.2897734 1.0004692
2.291035 4.8219933 3.1887465
0.92719896 3.3156336 0.91137147
-14.820987 2.8191071 18.520411
-15.422916 0.20082058 1.1171231
7.5457591 6.139069 0.2100337
0.50628117 3.1879807 0.95892315
-16.485869 -2.1436335 16.018105
-16.611352 -1.7231859 8.4145597
-16.925035 -3.3171281 15.257681
1.1788023 -2.5258129 5.4062901
-15.772291 -3.137784 5.134491
-17.15909 -0.43765863 9.8029545
7.7612153e-002 2.396945 0.91857307
1.0371605 -0.13690277 0.80466267
2.2512366 4.836912 7.2480059
-2.9236558 -4.2942662 1.0045501
7.5251506 2.8034201 4.2932352
-14.504209 -6.8605957 6.1967612
-14.443337 1.0702993 4.813824
-14.64332 -0.97916283 4.4750593
1.2016881 -2.5662731 0.97294794
1.5728877 3.9105354 0.54994044
5.906286 6.018575 8.6887014
-15.792618 -0.59282371 15.198121
-15.80149 0.80758066 9.0658212
-15.53358 0.32872758 1.4364049
-14.133756 -9.6693822 2.4187497
1.4919334 -2.5838581 12.628172
-9.410575 -0.3948096 4.3691738
-16.361476 0.28318016 13.681694
-18.032483 -8.0655335 7.1214545
-15.65457 -0.72731553 7.8774456
-16.351816 1.5192653 14.727187
1.1160091 -2.5766043 5.1228325
-11.058265 1.8679843 1.3868999
-18.131166 -7.6393144 7.4212637
-16.642336 0.37090277 13.558568
5.4891916 6.0058553 4.408312
7.1130179 2.9304742 -0.40458132
5.3198924 6.5104225 1.1294078
2.2639457 -3.796893 6.2968186
-2.9833375 -4.4393592 30.001221
-25.130532 -8.0771014 43.907464
-30.028223 -16.255749 51.825167
-25.992753 -32.588869 44.994254
-23.120287 -7.0220465 44.492423
-33.226412 -28.766993 35.992042
-14.835757 -5.2111834 3.7284393
-19.385435 -0.69366266 34.546725
3.5730073 -2.2610505 22.543514
-21.858296 -30.348989 16.757444
-17.17859 -5.2939429 41.217507
-21.187785 -29.577547 11.562511
2.2392209 -2.4365325 23.623554
2.2447671 -3.060727 2.4885325
-5.5309363 -1.3388499 30.769607
-19.402593 -24.979296 23.111568
-25.103821 -22.350569 41.756443
14.252824 3.9387443 6.3272018
-28.813106 -8.5223903 43.773925
-18.460437 -18.190089 19.793148
-32.443968 -17.092596 6.446887
-9.2163011e-002 -9.1390764 6.8712768
8.7308329 -4.3000361 17.003866
-16.093122 0.30193088 31.906411
-21.752141 -31.174768 16.419716
10.427267 1.8076776 3.1514831
6.6688438 0.79133214 3.2586636
-31.976213 -27.812749 44.337487
2.6224184 -3.5133896 13.134308
-23.0627 -23.305993 37.936422
-17.061729 -5.9382692 18.37446
-17.119409 -3.7394587 8.6358895
-32.201963 -8.1097064 47.604385
-16.884788 -4.3358436 7.8023042
-58.42743 -26.10351 50.258886
-36.040862 -17.451314 5.7093363
7.0360601 0.34501785 1.8854201
6.5492593 2.8968794e-002 2.0085832
7.6678241 0.41132105 2.2479506
7.6588279 -0.62899326 0.33102248
7.6880303 0.19940782 0.19547815
7.0953224 0.46963067 1.8577664
7.6561306 -0.5795769 0.29099664
6.0713556 9.6545828e-003 2.4050023
6.3196774 0.23104792 2.4440951
7.6552334 -0.44024218 0.29322489
6.0967461 0.12927897 2.507902
6.5999508 7.1427048e-002 1.9076559
4.9805221 -0.51132638 2.2748455
4.3458271 1.0261767 -2.2324545
8.2263173 -0.40013991 3.7506167
6.1015092 9.8336206e-002 2.745873
6.1227452 -2.6115657e-002 2.3042771
6.9209715 -0.63540603 1.5544287
6.0009854 0.10494465 0.33136
6.2207074 -0.80117742 2.6617327
9.4954264 0.1634786 2.9821802
6.4211111 -0.97941043 0.15003565
7.4177927 -1.2821479 -9.3285821e-003
7.4032329 -0.92039502 0.11824975
5.8591965 -0.4569553 1.9921614
6.5333525 0.34712734 2.4308858
6.8915869 0.32063946 2.0171095
8.2998752 0.48751712 0.18490764
6.3780336 0.28188849 2.4691147
6.3744991 -0.9890387 9.4785741e-002
7.9650383 -1.2907722 0.10672636
6.1065956 0.1172853 2.5897284
8.0990972 -1.3154256 7.8875728e-002
6.4497685 0.31237763 2.4616139
7.7000706 0.48941305 0.19083877
8.155284 -1.0360159 0.88856099
6.3669407 0.24066337 2.4545803
6.2577313 0.18312342 2.4586252
6.0555996 -1.6570137 -1.3313979
7.4219655 -1.2336763 0.10984275
6.3560113 0.30832132 2.4503498
5.9786918 0.11311556 2.6810644
7.1779557 0.58751933 0.13626901
5.5323426 -2.0775204 0.17152148
5.7607088 -1.1250941 0.28696603
5.4776797 -6.1673705e-002 3.1944144
6.6433362 -1.5051192 1.8245847
5.7572093 -0.95865495 0.23244476
6.3041954 -0.46666802 2.4516805
5.8609675 -0.37372056 1.8604441
5.6446477 -1.2906336 0.17905069
-16.513893 3.2381936 12.961488
-19.242471 5.9216932 38.853207
5.7031535 1.5050903 5.5956182
-16.376844 2.3168345 15.044399
-9.9317836 7.7919645 19.466586
-15.002353 8.5318562 15.477181
-11.891628 7.784323 17.794185
-10.82576 7.9400174 15.968777
-16.696552 3.0384814 16.789711
-16.585043 4.1401856 16.5823
-16.504146 5.4972934 12.493284
-16.460114 5.2027899 15.743314
-16.417095 4.8030779 17.764841
-9.7490071 7.7282818 18.926903
-12.034627 7.9247136 18.183882
1.3685957 -2.4449239 4.6188582
-7.9747495 7.3656795 14.546017
-1.6761422 2.3051363 0.99512852
-18.789441 -6.2711627 19.142002
-13.822973 6.1295709 16.676829
6.7652545 0.26686123 2.1468879
-0.42511929 2.1891297 0.97926867
-14.448152 2.2364155 3.2305874
1.5528771 3.9756212 0.54135518
7.7404793 0.36634281 7.7880058e-002
-16.060714 -4.5685448 4.6978364
-15.504915 4.2326161e-002 1.4198159
-9.4348793 -3.0212173 5.4759625
7.0128817 0.60234339 9.5964913e-002
6.5353493 0.27132296 2.4362923
-14.721164 5.0523505 15.730762
-16.681971 2.0479902 16.717181
-15.625507 1.2274564 1.0078038
-15.455067 0.10123592 1.548213
-1.1494136 6.6796921 12.171913
-6.7501988 7.2276866 13.291702
-14.445218 6.2301214 13.833252
-13.343546 7.9114508 18.428101
2.4611207 5.8446817 6.8459743e-002
-27.857468 -0.24245669 26.008429
7.7708215 2.3704541 1.4296192e-002
-15.404697 4.0533126 14.391946
-17.532209 -7.4313826 18.545696
1.0561803 -2.4100173 11.669837
-14.349989 6.6587762 16.145462
-8.8812451 1.5779615 0.97445829
1.9607218 -2.6454741 4.1318086
-29.896355 -7.2504194 27.443631
7.9636899 2.9473827 5.7879876
6.8658691 2.4355113 6.1454945e-002
1.5562186 3.932904 0.91887989
-14.551421 5.5617958 15.05351
2.0461673 -2.5989156 9.3763259
1.3264398 -2.4973169 3.2357988
5.7681134 2.8206539 -6.1446304e-002
13.083999 2.2073511 2.8525466
6.8956297 0.47484478 2.1552544
7.2802767 2.416834 2.0535331e-002
-17.014456 -1.4423291 15.522835
-18.295467 -7.6610548 8.8430415
-13.91253 6.372482 15.039134
2.1863936 -2.7242491 8.4434276
-10.717027 6.061732 9.7771846
6.903532 0.8996075 3.1815562
-19.080975 -7.897699 17.56514
7.8322404 4.0576666 -4.6828818e-002
-16.208657 1.7773038 16.343681
1.5780255 -2.5260355 2.579317
-16.192744 4.6636462 17.214852
-15.409284 0.78170531 4.9603462
2.1372476 6.3187056 3.2545104
-14.313005 4.7126765 16.914499
7.6119031 4.1561578 -0.15994235
6.6413461 3.8868149 0.26717182
-15.424362 4.9518488 12.520527
-16.732985 -1.0022934 4.0044496
6.002833 0.20356528 3.2197923
-17.723314 -7.2059436 7.5758378
-14.357559 6.5549364 15.186083
-15.003394 4.5998801 14.271151
-7.2472796 7.3196896 15.181856
-15.00412 6.0941134 1.9389619
-15.159859 2.4352933 1.9518142
2.3841437 6.2476856 2.8126137
1.2859073 1.5357166 0.64667976
-17.870312 -5.4589767 22.02356
-14.810694 4.1385831 3.3054959
7.7109927 0.36303446 0.11544836
1.9426307 -2.5656507 7.1580152
-13.404339 7.933709 18.436303
1.5734005 -2.4847818 3.0850081
1.9550597 -2.5757484 6.5870763
-1.1552322 6.6616204 13.210833
-16.49879 0.68822576 18.623655
-15.715195 3.5001655 6.7893671
-1.3819362 6.7274322 12.440068
-14.882299 -5.3333207 -4.2138385
-17.731734 -7.5626034 7.9216784
6.3424835 4.3398162 5.4284755e-008
-13.89833 5.5908848 1.2199079
-8.7125289 4.7389428 1.0843431
2.0791298 -2.7679862 4.2337423
-16.432938 3.8929866 14.130104
-17.100563 -6.6253829 19.874602
-16.899904 1.7361603 16.471297
-15.518185 4.042492 16.053908
6.784575 2.4883385 1.5794461e-002
1.7050213 -2.5292708 3.3575458
1.2620943 2.060216 0.57175894
-29.7059 -9.8514849 25.483976
1.7049116 -2.5049867 3.1561793
2.2013289 -2.6965171 11.444037
3.672394 2.828796 0.15880135
5.7845244 -0.64464882 0.18620106
2.5977959 6.1817636 6.0372946
3.0808419 6.0179942 1.9768857
1.8831082 -2.4976865 9.8282509
-3.2030133 6.8914313 12.111531
-14.293708 5.7616163 18.027452
0.91114555 -2.5561111 10.744271
3.219572 6.0049581 3.0636753
-16.188579 -2.9806879 14.97401
-11.105152 0.73378439 0.75715822
-17.046426 -1.5398941 15.554664
-13.420676 0.3054655 13.949729
3.975124 2.0305018 -0.73967146
7.7011709 2.3566962 2.2932176e-002
-12.736363 5.0064955 14.454456
-7.1262119 1.098162 1.3271107
-1.8139514 -1.5664125 0.3799057
-6.3880944 7.2188248 13.482552
1.8871336 -2.5108362 7.8969634
-3.5496982 5.2714922 1.6505549
2.0212665 -4.3572938 9.892093
-2.6226204 5.3672608 1.0056128
-7.3558137 5.1053817 1.0476859
2.0150168 -4.2047347 6.4236707
-3.9220416 7.1083431 16.597876
0.30685068 5.014336 7.2880375
-5.7458117 5.7062782 0.70427519
-2.2515269 6.7892632 15.613656
-3.3236992 5.2601766 4.7067355
-12.225387 7.9569092 14.312385
-2.6203401 6.848927 16.176274
5.3670547 -5.4524436 0.22529031
2.3383593 -4.0619713 9.5175038
11.694324 -7.7438931 5.3922114
-0.94323349 5.1099333 8.2959917
0.33428764 -6.2816418 2.6510939
-6.3104779 7.2849512 15.103504
1.9281574 -4.401737 9.2623093
5.9704012 1.5039526e-002 2.3785979
1.0453614 0.81047733 0.34680569
6.1351899 7.6898191e-002 2.2926017
2.227158 -4.1537559 5.6563804
-3.0086826 6.757003 14.742354
-8.4147955 7.5495992 12.408108
0.1094958 -6.0848027 0.309487
-7.1813177 7.3148385 15.36795
-4.5032652 6.9196527 14.504372
-14.541484 8.3006876 11.376382
2.2871085 -3.0738573 4.1729853
2.3845625 -3.2914964 4.3003873
-3.5579171 6.8868312 13.293834
2.4684477 -3.2192735 8.1729212
-2.0774727 -4.4634067 1.5516815
-15.825717 -0.21042552 5.6907875
-3.0687148 6.7863636 14.999374
2.2383356 -4.1484957 9.5800315
1.8251041 -4.4931596 4.9739892
-3.1588484 6.8021196 15.278341
2.4420187 -3.394359 6.0840105
5.7398177 -9.3043058e-002 3.5358446
-12.197712 7.9450687 14.182901
8.5228139e-002 -6.1790676 0.34151896
-4.2669256 5.5054008 2.2453605
-0.8926984 5.1088171 4.7787543
2.4585976 -3.3992953 7.0486237
2.414293 -1.5938777 -1.1981131
2.5147291 -3.4742928 9.9398882
-7.0805716 5.6885847 4.1008959
-2.2042077 5.2305658 1.7682678
-8.732093 7.5302737 16.918474
1.0041259 4.8707228 6.7197022
-4.0944598 6.901911 16.208565
-4.7640245 5.4669249 5.3323052
-16.983768 -0.76061777 12.741938
-4.7273557 5.526865 3.888656
2.5030378 -3.924747 11.129086
-12.955075 8.0144566 12.778146
5.9206678 0.20637616 2.9597154
2.5015893 -3.8835937 11.194315
-2.363733 5.3347359 2.8456606
-3.7472611 -3.7004497 12.219739
2.4685864 -3.4321628 6.6356207
1.906215 -4.4231614 10.116033
1.670286 -5.5365991 0.40012386
2.3875468 -3.4531666 3.6986648
-11.98893 7.9859004 15.945817
-5.1047048 7.050144 13.916244
-6.5549437 7.1924134 11.865092
-4.5987288 7.0848649 16.298321
2.3407463 -3.5913533 2.5276576
2.0235046 -4.317537 9.598756
-0.99846183 5.0968343 8.3434975
-17.569864 -1.0276296 11.985805
-3.2853443 7.0388707 14.195695
-5.6007678 5.5758079 4.6812299
-3.8742538 6.9168857 15.906177
-3.4076531 5.5088708 7.2961723
-12.833182 8.0582616 19.031923
-9.0973463 7.5855548 18.201115
-2.0455884 5.2455706 5.1689105
2.3304048 -3.9995939 6.4731647
-8.6297982 7.4512034 18.95981
-25.850953 1.9957478 -7.2451857
-17.434337 -1.0749539 16.363449
-7.5134328 7.3981865 13.155724
-1.101459 5.1473379 8.5848017
-4.6954198 5.4893589 5.8462043
-2.9989432 5.2916378 4.5914154
-2.9650426 6.8517076 15.39713
1.7629923 -4.4955143 8.7418552
1.7888445 -4.4445938 9.3818308
-3.877524 7.0307905 13.57474
-4.9879277 5.5102212 5.5562102
-16.713308 4.9007167e-002 8.522943
-5.4590562 7.1086628 17.186135
-14.165781 8.3600843 15.215636
-3.1365493 5.3639339 3.5858566
-1.7663511 6.7551204 11.410196
-16.578643 -1.3153048 8.4581906
-16.798355 0.36495054 12.956033
10.874876 -7.2601676 6.150292
0.79741745 -5.4807685 1.4300947
-12.321002 7.8383657 17.854768
-2.5844793 5.2828896 3.4199133
-1.762498 6.7561547 11.686916
-11.144055 7.8665099 11.626327
1.5196051 -4.6008871 4.3660489
2.6306678 -3.4192938 9.9035215
-4.7607882 7.0479391 12.770121
2.606626 -3.4498237 11.182677
2.5428352 -3.2509877 11.018126
-5.3981559 5.5529335 5.7824014
2.4699006 -3.7290268 8.8577771
1.6942226 -4.5223397 4.2881247
-6.2312921 5.658181 3.5087734
-2.3928074 6.9017738 13.248088
-3.0707105 5.3530722 7.3189677
-3.3950045 7.0795339 14.402371
-2.8809291 5.3968983 7.2163653
-3.5997768 7.0968843 15.897105
-0.23297877 6.7159061 15.233306
-7.3994013 -10.254239 7.1648825
6.3327144 6.1831429 21.701313
-2.1583915 6.9834197 17.790652
-1.8636897 6.9305908 16.882254
-1.0032839 6.8441393 17.057441
-3.1837219 7.031163 13.073564
-2.8739027 7.1013881 18.630075
-2.059621 7.0074952 18.570514
-2.9632765 7.1061815 17.652701
-3.6153957e-002 5.0480996 9.670807
-1.1397809 7.0231699 15.997238
2.4081843 -3.4534581 5.5356158
2.2107932 -2.7333093 8.1063511
2.2693235 -4.0114758 9.4131205
2.511935 -3.5464253 12.834629
2.3064454 -2.9473399 5.6043071
2.2885423 -4.0825085 12.183664
-14.604454 1.9093814 5.9475208
2.4516231 -3.2395431 5.2292469
2.2616956 -4.1316939 12.277057
2.3730634 -3.5898289 5.2389728
-17.739725 -1.6783091 16.468874
2.1984671 -4.1113148 9.7178657
2.4389116 -3.3669965 7.1095783
-17.305766 -2.9827688 8.4698534
2.3274623 -3.8922687 9.6711711
1.88935 -2.4321828 9.4203539
2.3652494 -3.9638077 13.364609
2.5916204 -3.4443019 12.638732
2.6068353 -3.4631079 13.020941
2.3468028 -2.8835448 9.0180747
2.3958896 -3.3288274 5.5077478
2.371207 -3.5981368 5.406975
-18.246237 1.5894715 12.640924
2.3425989 -2.9308001 5.3165052
2.52324 -3.6384503 13.190563
2.4094781 -3.3645612 5.4592532
2.353351 -3.1860347 5.4815794
-16.597402 -0.62955891 8.2748968
2.4493052 -3.4302556 5.8032938
2.4687798 -3.5299136 12.824372
2.5507347 -3.3709121 12.602068
2.5824485 -3.3526144 12.498538
2.5321385 -3.4517176 12.763362
2.4772077 -3.0332801 10.682402
2.3690793 -3.9568231 13.421626
2.5016217 -3.1119049 13.102569
2.5241005 -3.1945655 12.98331
2.2940728 -3.7331535 5.9570938
2.3974089 -3.349161 5.4849406
2.4987906 -3.5499224 12.920163
2.5093638 -3.8094632 12.422718
-16.781101 1.4105168 12.704304
2.4252313 -2.8826213 12.159882
2.1451902 -2.6551417 7.616591
2.2279419 -2.6344341 12.598733
-17.390576 -1.7683737 15.325064
1.3447283 -2.3757415 8.578876
2.4974122 -3.6575772 12.886962
2.3809686 -2.9571431 5.8581682
-16.940591 3.8437652 22.313028
2.3011093 -2.7973428 8.4310104
-17.438953 -2.6333029 7.8812723
2.3934775 -3.2951428 5.4036983
-17.517317 0.66804751 14.542827
-21.948253 0.38856635 26.028937
-18.367718 -2.4307862 8.9452387
2.3106 -2.9397203 6.2004828
-17.133968 -4.2077436 4.9917803
2.538295 -3.6040115 12.68534
2.3448875 -2.7665371 12.516566
2.5539038 -3.2320217 12.918038
2.5640695 -3.1949788 12.492679
2.5098384 -3.2361341 9.655494
2.4949558 -3.0787212 12.909925
2.4196073 -2.9172988 11.542036
2.4856969 -3.2391008 13.13391
2.3712898 -3.8724094 8.9472402
2.0884834 -4.2547069 10.019016
0.37776873 -3.624723 9.140414
0.3196584 -3.3967487 7.1607458
26.183345 7.0933456 39.822381
1.1669813 -4.1488609 15.321671
25.234357 9.1394826 41.161655
0.24498674 -3.4654632 3.6513691
0.29836954 -3.0348927 2.9065255
0.21486489 -3.5888868 4.7005776
0.72018866 4.4926536 2.9202243
0.50659861 -3.5123613 13.733524
1.0707214 -4.5543771 5.4719408
0.35170162 -3.5335821 7.9314303
0.4356117 -4.1550768 3.5641121
1.4012156 -4.4647942 13.515342
3.3423474 11.029254 10.66101
0.27628872 -3.6909657 4.3269586
11.502628 3.2602163 13.928353
0.69234945 -4.4252551 3.0840217
1.4986997 4.7469182 3.1191542
0.4750253 -3.3281003 12.796822
20.798938 12.575438 14.543602
0.83618413 4.8415559 3.8217338
0.28556853 4.7934252 3.0230866
1.7358568 -4.4745667 13.229278
1.2607377 4.9731373 9.7355036
0.62121433 4.9590429 4.3024095
1.3424541 -4.6588205 3.274311
0.95488621 -4.5333262 4.7118236
0.72506576 -4.1484808 11.215671
0.8224656 4.9438315 2.6143241
1.1180483 -6.1520736 2.5773974
1.2597111 4.7982953 3.3025062
22.141755 9.1970574 39.046015
1.3852602 4.5470658 2.5723095
0.88752118 4.9763915 6.845718
0.71564314 4.8164146 2.3755849
0.85742887 -4.1327517 15.142756
1.7975252 -4.4295281 13.059308
1.0171324 5.2296339 4.4517352
0.91197523 -4.3367619 10.635969
0.78622044 -4.2369864 10.532784
0.90060496 -4.2825059 12.289749
0.67587498 -4.133169 10.752391
1.6393485 -4.4536157 14.848107
1.011101 4.6686435 1.8622296
0.68300254 -4.0959783 11.958784
1.1510769 -9.3352146 14.286686
0.96884409 -4.3571523 11.105134
0.55588706 -3.7002268 14.489968
0.61323498 -3.7936714 14.935713
-1.5554843 -2.8629067 2.6186664
1.3094365 -4.53508 10.496979
1.0764143 -6.1729252 2.6932978
0.23732708 -5.8303569 2.6754846
0.42014315 -3.389149 10.415053
1.9732263 -4.2636678 3.7578028
9.6677652 11.142027 2.8149876
0.31394984 -3.738569 4.9722839
3.7096935 -4.3940833 3.2951547
19.325763 5.0181293 38.071857
0.34580306 -3.8137976 5.3945006
0.45726272 -6.0980195 2.5676897
0.43681846 -3.5531891 11.131369
0.61238066 -4.3915851 3.0973848
0.25516733 -3.7115251 2.4333699
0.51528975 -4.2871524 2.3753371
0.37100232 -3.959483 4.668775
1.7851392 -4.4598085 13.839336
1.2241584 -4.6951395 3.0763185
-3.6419726 -5.1565419 3.0866206
-2.5988167 -6.1996388 11.948632
27.542254 11.497263 1.9710774
26.945672 11.997549 -7.1435108e-002
0.52272451 -3.236586 14.592942
2.1042897 2.3557076 18.75541
0.71019654 -4.0580813 13.637116
25.403927 12.02111 1.9146906
38.025246 21.092737 -1.7300993
0.62654516 -3.8940891 14.938223
12.416204 3.2412348 13.954019
0.58728846 -6.1368476 2.4090696
26.057248 11.751884 1.6768684
1.6817571 4.639757 4.8655413
8.1796001 -3.6443453 9.5641934
1.6433854 4.5668864 4.7442865
0.47478373 -3.9182145 10.533036
0.735224 -4.5307611 3.0192159
24.075171 13.430033 3.5422118
1.1695262 -4.6680673 3.1613648
25.10347 12.808577 5.7918343
30.741165 7.4142773 42.589434
26.554642 11.596732 0.33184826
0.54713631 -3.6753321 14.196862
-2.496984 -3.2256172 2.6971188
1.1896554 -4.6071997 5.2963456
0.61438589 -4.013481 11.332043
25.543603 11.471177 3.5614353
1.1006256 -4.4180865 11.2134
0.61056959 -3.9315344 12.899788
-1.842502 -2.7995353 2.6372727
28.947231 11.589365 5.5755181
14.817526 2.3080481 0.52647868
0.86606253 -4.4835661 5.4332468
1.8545494 -4.4796761 14.94299
16.491008 1.238979 16.722457
0.43722197 -4.0534251 5.3522616
0.25151609 -5.650454 6.9183341
0.71643526 -4.4006948 4.8607125
0.70158036 -4.1561911 10.873071
-15.135784 5.1338895 1.9388784
-6.7337 4.1950901 1.0794586
-2.6053427 1.785504 0.96264873
-4.5897515 1.7529178 -7.1687188e-002
-9.7742937 5.1426799 1.1253758
-3.6029695 0.77811952 0.38282261
-4.8363789 3.1774346 1.0481464
-15.006495 4.7162139 2.3077244
-14.072558 6.3147878 2.916513
-8.3437603 5.8852123 4.6365029
-9.7737714 3.1580756 1.2307887
-13.352472 6.0291934 3.0327082
-14.061881 6.3502678 2.7733502
-3.5500215 1.9117998 1.0053638
-15.086652 3.6542714 2.5684298
-7.0676591 5.7814996 4.5764958
-4.5441843 3.5706964 -2.4190228
-6.7542122 5.706877 2.56422
-5.9816164 5.3715991 2.5298935
-2.8490354 1.7728443 1.4608205
-6.1371764 5.1970032 1.0593685
-4.0434346 1.691455 1.0136268
-2.1620544 1.9985816 0.97263542
-12.159979 6.2936863 4.6144803
-13.489774 6.3617894 1.9688511
-4.120144 2.3812781 1.0760314
-3.423287 2.2298487 1.0232004
-7.412283 5.1365706 1.0928948
-15.050833 4.8889775 1.4508083
-14.941915 5.7270274 2.9197829
-11.44464 2.4342276 1.212253
-1.8405446 1.5908304 0.57274123
-8.6137739 3.7784692 1.091062
-14.986032 5.3229491 1.46208
-3.7819183 3.0997525 1.0113064
-2.1391993 0.90977082 1.3599422
-3.5930914 2.4836985 1.0434788
-4.4970313 3.5546993 1.092845
-4.7018976 1.6210031 1.0292346
-6.3133325 3.8383606 1.0575363
-3.4588258 2.3906571 1.0128418
-24.719435 19.168941 -23.832179
-8.5934976 5.837107 1.9070132
-4.0879745 3.5027427 1.0312542
-8.8784465 3.8021041 1.1107842
-14.772609 6.3749885 3.4900023
-3.3711327 0.8474429 -0.59354432
-7.4373108 5.5980032 3.052538
-11.266855 4.1101839 1.1731973
-4.0868163 2.846829 -0.4025484
-15.203156 5.102821 1.2944163
-3.4015814 2.8682793 0.9834457
-3.9277553 1.4058129 -1.1869893
-13.651253 4.9070786 1.2197016
-8.0887763 3.1149162 1.1105329
-13.125916 6.2770573 3.0572174
-1.6951988 1.1396055 0.930105
-8.3861675 5.901675 3.8742173
-12.773472 6.2400692 3.0786006
-13.50021 6.2115905 2.4567146
-15.247629 5.6028704 3.0185659
-2.1203869 1.1954682 0.70478134
-10.481985 4.9069223 1.1386766
-14.947453 6.2097566 2.8270098
-15.164567 4.4763168 3.6471372
-1.666255 0.95918255 1.3693192
-14.024329 4.5599728 1.2314759
-4.2664015 1.385943 1.044408
-12.922992 5.8580428 1.1735802
-14.929125 5.4952939 1.9605708
-4.0910581 2.8049869 -0.40036727
-3.364043 1.7854917 1.0231334
-14.84936 4.8536033 1.3565738
-2.4436627 1.9986101 0.41467487
-15.421414 5.5489131 2.9933466
-6.9020627 5.7550465 2.6573548
-3.5034444 2.6942376 -0.38552042
-10.509327 2.194142 1.2935369
-14.899275 4.3924227 2.7876373
-2.3603713 0.48233322 0.99082135
-1.8065717 0.83315458 2.6741349
-12.290673 2.7088478 1.215357
-4.9673279 2.2320164 -2.099183
-2.6889999 2.2774269 0.60698922
-5.4396762 3.2415087 1.0637554
-13.435291 4.5300381 1.2086474
-8.6114601 3.5409272 1.1168594
-2.5298296 0.41822091 0.98811085
-3.4134976 1.6909927 1.0273668
-14.717634 4.7371403 2.1128466
-6.1905997 3.9322417 1.0767271
-8.0341153 5.3031475 1.0740879
-9.8286731 3.7781099 1.1369845
-8.0361285 2.9955659 1.0762161
-15.092407 4.6417225 3.778051
-2.1588176 1.4922354 0.97829082
-4.4417069 0.53203478 -0.50638047
-9.309876 4.6650447 4.1712834
-1.7435607 0.90082513 0.96226961
-4.7787894 3.6486903 -0.76970865
-6.0695464 3.4932213 1.0721
-11.66463 6.1826313 4.0880497
-2.6857813 0.63883589 0.96653441
-2.2464902 0.15797944 0.99522111
-4.2970662 2.473282 -0.76892709
-1.5263977 1.1816923 1.3564374
-6.8441211 5.7157788 3.2091365
-16.960684 10.008521 -16.715861
-15.966309 4.9019571 3.114551
-7.3418243 3.8107696 1.062619
-2.5031753 0.60711117 0.97549689
-2.1042302 1.3055525 0.95263156
-7.891281 3.8094676 1.1030939
-2.0556263 1.8946484 0.85251456
-7.3106293 0.46262719 1.1556937
-9.361248 5.9021678 6.4648994
-14.41906 6.5690576 9.3122667
-15.500764 -0.5133461 2.3764869
-16.606904 3.6032559 11.750045
0.820748 2.5592912 0.93329086
1.1866267 1.1816041 0.66747583
1.2403767 1.6419565 0.78219246
-13.679546 0.68136466 0.99037532
-16.236683 -1.4607126 8.1864881
-1.17482 1.7535937 0.98461898
5.6008848 2.5786387 -6.494742e-003
0.84364166 2.5406741 0.93468695
1.0771674 0.66468012 0.78572525
-3.3960737 3.3455494 1.0232392
-9.785118 0.33029688 0.90551089
0.96848501 -0.17994682 0.86358126
1.1739926 0.95979388 0.37968976
1.3324947 3.0487991 0.34558651
1.9667223e-002 0.27599434 1.0190867
-7.849278 3.0413342 1.1117129
-16.172626 -4.9204557 5.0978855
-15.126814 0.49114319 7.3273621
-13.066789 -0.98234807 4.8720746
5.8884839 2.5492178 3.6369091e-002
-15.918344 -4.9946055 4.4333519
-15.866709 -2.2787238 1.4582171
1.227843 1.2126072 0.79144801
2.0049365 1.0780272 0.14897949
-16.063449 -2.5447968 7.269516
-10.734603 -1.0637885 5.7222172
-15.147628 3.1274607 3.0392785
6.716218 2.4810608 3.9580005e-002
1.3795984 2.8627718 0.38755661
3.9015401 0.9211491 0.12983427
-4.231568 0.33630524 1.4812497
-17.550779 -6.894373 5.2833097
-0.53531387 2.2349332 0.94204016
-16.827453 -2.5266112 8.8742427
6.5538875 2.4991907 0.10036776
-15.667127 -1.7957387 8.1460268
-15.054278 4.1574056 1.3011604
-0.93735356 1.7505571 0.99957449
1.1649529 0.84820259 0.92621266
-16.359507 -4.5588707 4.5825279
-6.9555287 1.8754017 1.3594543
-15.567835 -3.7253398 5.1101532
-8.3382808 3.5908905 1.16772
-4.9546556 1.481408 1.8538901
-15.387631 0.86698456 1.3236683
1.1369113 1.4228458 0.23327429
-8.2881849 3.1825081 1.1272298
-16.648404 -5.6096725 4.4036097
1.0872708 0.7698353 0.61478117
-14.032582 -0.24246472 8.2766068
6.6361562 1.4352121 1.6220561
1.3102401 2.421991 0.92378734
-0.52836264 2.2157602 0.98022524
1.1670602 1.17172 0.83011372
1.3192106 2.6683696 0.87616231
-1.4613859 2.428618 0.9785987
3.9726569 0.28287955 1.7087291
2.2213975 0.75019144 -0.62211502
-16.900674 -5.744056 4.4065699
-15.213381 3.0103534 1.7924695
6.7683599 1.4286878 8.1111942e-002
5.010556 0.79331443 2.4545875e-002
-16.359586 -4.1814995 7.9858507
-14.769067 -4.8368986 4.9353472
2.1469296 -4.1280412 4.5275931
2.3460399 -4.0883046 2.6746092
1.924217 -4.4025047 2.7077994
0.48223711 -6.090577 1.9848433
1.6494428 -2.5881525 4.6645896
6.8173541 0.43165824 2.1139466
7.1886619 0.37279174 1.9771427
1.2131938 -5.2277845 2.4758361
2.4147779 -3.6543038 3.8008117
2.4078682 -3.4226478 4.0556231
2.5186767 -3.3183337 4.8514405
2.1489066 -2.6922466 3.5359638
5.7604421 -0.51151392 2.1602254
0.4523921 -6.1885219 1.3842102
7.1544206 0.5647376 1.9582438
2.4248881 -3.7571795 4.04981
8.5695374 0.43579549 2.9965211
-18.584991 -1.8448198 6.1473954
9.8793673 0.67646282 2.9526085
2.4793245 -3.3417516 4.6409889
1.8304137 -2.5581594 4.0642155
2.1129069 -2.9352701 2.3262287
5.2687463 0.80698168 0.23104518
1.1644523 -5.0986817 2.2001646
2.2042819 -3.3012726 4.1940944
2.4239117 -3.8972496 4.0585942
2.1106349 -2.7999123 3.9433933
-3.4178378 -8.8420706 3.162975
0.96183701 -6.397877 3.0585255e-002
